# .PCD v0.7 - Point Cloud Data file format
VERSION 0.7
FIELDS x y z rgb
SIZE 4 4 4 4
TYPE F F F U
COUNT 1 1 1 1
WIDTH 56
HEIGHT 1
VIEWPOINT 0 0 0 1 0 0 0
POINTS 56
DATA ascii
4.1383715 0.50812805 -0.59718752 4294967295
4.1217852 0.49514166 -0.5211339 4294967295
4.1427608 0.45663324 -0.4493145 4294967295
4.1557798 0.4338569 -0.42574915 4294967295
4.1526909 0.40937021 -0.4005473 4294967295
4.172966 0.38858345 -0.37765154 4294967295
4.1680379 0.3785876 -0.35232347 4294967295
4.1745629 0.41520536 -0.32847187 4294967295
4.1635423 0.42365155 -0.30307114 4294967295
4.2015457 0.46014431 -0.28103131 4294967295
4.1969333 0.47966427 -0.25592446 4294967295
4.1677566 0.50066406 -0.2296918 4294967295
4.2064576 0.52394199 -0.20672657 4294967295
4.2029767 0.52872396 -0.18176709 4294967295
4.1849966 0.55096549 -0.15625647 4294967295
4.2069669 0.57403892 -0.1319508 4294967295
4.2167892 0.59563327 -0.10727719 4294967295
4.2061439 0.61735916 -0.08199852 4294967295
4.2234774 0.63949472 -0.057186175 4294967295
4.2324171 0.66202211 -0.03207599 4294967295
4.2273006 0.66953874 -0.0068724053 4294967295
4.2193031 0.64262992 0.018250154 4294967295
4.2279987 0.61001724 0.043468002 4294967295
4.223598 0.58156538 0.068538636 4294967295
4.2521214 0.54546374 0.094215617 4294967295
4.2426624 0.51943022 0.11909452 4294967295
4.2445474 0.49711752 0.14445673 4294967295
4.2480378 0.3948262 0.21970728 4294967295
4.2448983 0.11189811 0.21867868 4294967295
4.249299 0.048208788 0.14364593 4294967295
4.2502713 0.025963521 0.11842607 4294967295
4.2429705 0.0066647665 0.093248852 4294967295
4.2434282 -0.014071636 0.068217166 4294967295
4.2476659 -0.031137401 0.043223798 4294967295
4.2275896 -0.056079987 0.018079113 4294967295
4.2233119 -0.075930335 -0.0067824861 4294967295
4.2067137 -0.099136934 -0.031506948 4294967295
4.2259521 -0.11877976 -0.056597177 4294967295
4.2129474 -0.13828553 -0.081304267 4294967295
4.2155805 -0.16120945 -0.1062699 4294967295
4.214108 -0.18030742 -0.13108106 4294967295
4.1963549 -0.20009735 -0.15551662 4294967295
4.2140603 -0.22601257 -0.18108118 4294967295
4.2079163 -0.24410072 -0.20555753 4294967295
4.1863885 -0.24798428 -0.22947326 4294967295
4.1860991 -0.22817647 -0.25398931 4294967295
4.1865315 -0.1879126 -0.27864295 4294967295
4.1818995 -0.16211419 -0.30307114 4294967295
4.1728034 -0.1420718 -0.3269107 4294967295
4.1759419 -0.1035163 -0.35165238 4294967295
4.1663623 -0.079270676 -0.37549764 4294967295
4.1447206 -0.043405034 -0.39787188 4294967295
4.142508 -0.018798269 -0.42209986 4294967295
4.1797791 0.0043771076 -0.45060071 4294967295
4.1540933 0.10370026 -0.52163213 4294967295
4.1322565 0.49274153 -0.5960533 4294967295
