# .PCD v0.7 - Point Cloud Data file format
VERSION 0.7
FIELDS x y z rgb
SIZE 4 4 4 4
TYPE F F F U
COUNT 1 1 1 1
WIDTH 213
HEIGHT 1
VIEWPOINT 0 0 0 1 0 0 0
POINTS 213
DATA ascii
4.2105889 0.067258328 -0.10417645 4278255360
4.2104001 0.066281147 -0.10534469 4278255360
4.2024484 0.35797688 -0.15609759 4278255360
4.2026377 0.35895407 -0.15492934 4278255360
4.2105889 0.067258328 -0.10417645 4278255360
4.2105412 0.067014031 -0.10446851 4278255360
4.2104945 0.066769734 -0.10476057 4278255360
4.2104473 0.066525444 -0.10505263 4278255360
4.2104001 0.066281147 -0.10534469 4278255360
4.2066131 0.2131062 -0.1295529 4278255360
4.2065659 0.2128619 -0.12984496 4278255360
4.2065187 0.21261761 -0.13013703 4278255360
4.2064714 0.21237332 -0.13042907 4278255360
4.2064238 0.21212903 -0.13072114 4278255360
4.2026377 0.35895407 -0.15492934 4278255360
4.2025905 0.35870978 -0.1552214 4278255360
4.2025433 0.35846549 -0.15551347 4278255360
4.2024956 0.35822117 -0.15580553 4278255360
4.2024484 0.35797688 -0.15609759 4278255360
4.2407894 -0.0014626608 0.083515957 4278255360
4.1909423 -0.25907725 -0.22447021 4278255360
4.1277542 0.21933064 -0.61881059 4278255360
4.2220955 0.68431252 -0.035803832 4278255360
4.1909423 -0.25907725 -0.2244702 4278255360
4.1928768 -0.24907725 -0.21251488 4278255360
4.1948118 -0.23907724 -0.20055959 4278255360
4.1967468 -0.22907723 -0.18860427 4278255360
4.1986814 -0.21907723 -0.17664894 4278255360
4.2006164 -0.20907722 -0.16469365 4278255360
4.2025518 -0.19907722 -0.15273833 4278255360
4.2044868 -0.18907721 -0.14078301 4278255360
4.2064214 -0.17907721 -0.12882769 4278255360
4.2083564 -0.1690772 -0.11687238 4278255360
4.2102914 -0.1590772 -0.10491707 4278255360
4.2122264 -0.14907719 -0.092961751 4278255360
4.2141614 -0.13907719 -0.081006445 4278255360
4.2160964 -0.12907718 -0.069051124 4278255360
4.2180314 -0.11907718 -0.057095818 4278255360
4.2199659 -0.10907719 -0.045140512 4278255360
4.2219014 -0.099077187 -0.033185214 4278255360
4.2238364 -0.08907719 -0.021229908 4278255360
4.225771 -0.079077192 -0.0092746019 4278255360
4.227706 -0.069077194 0.002680704 4278255360
4.229641 -0.059077196 0.01463601 4278255360
4.231576 -0.049077198 0.026591316 4278255360
4.233511 -0.0390772 0.038546622 4278255360
4.235446 -0.0290772 0.050501928 4278255360
4.237381 -0.0190772 0.062457234 4278255360
4.2393155 -0.0090772007 0.07441254 4278255360
4.1909423 -0.25907725 -0.22447021 4278255360
4.189621 -0.24907725 -0.23271298 4278255360
4.1883001 -0.23907724 -0.24095576 4278255360
4.1869798 -0.22907723 -0.24919853 4278255360
4.1856585 -0.21907723 -0.25744128 4278255360
4.1843381 -0.20907722 -0.26568407 4278255360
4.1830173 -0.19907722 -0.27392685 4278255360
4.1816959 -0.18907721 -0.28216961 4278255360
4.1803756 -0.17907721 -0.29041237 4278255360
4.1790547 -0.1690772 -0.29865515 4278255360
4.1777344 -0.1590772 -0.30689791 4278255360
4.1764131 -0.14907719 -0.31514069 4278255360
4.1750922 -0.13907719 -0.32338345 4278255360
4.1737719 -0.12907718 -0.33162624 4278255360
4.1724505 -0.11907718 -0.33986899 4278255360
4.1711302 -0.10907719 -0.34811175 4278255360
4.1698093 -0.099077187 -0.3563545 4278255360
4.168488 -0.08907719 -0.36459726 4278255360
4.1671677 -0.079077192 -0.37284005 4278255360
4.1658468 -0.069077194 -0.3810828 4278255360
4.164526 -0.059077196 -0.38932556 4278255360
4.1632051 -0.049077198 -0.39756835 4278255360
4.1618843 -0.0390772 -0.4058111 4278255360
4.1605639 -0.0290772 -0.41405386 4278255360
4.1592426 -0.0190772 -0.42229661 4278255360
4.1579223 -0.0090772007 -0.4305394 4278255360
4.1566014 0.00092279911 -0.43878216 4278255360
4.1552801 0.010922799 -0.44702491 4278255360
4.1539598 0.020922799 -0.45526767 4278255360
4.1526389 0.030922798 -0.46351045 4278255360
4.1513181 0.040922798 -0.47175321 4278255360
4.1499972 0.050922796 -0.47999597 4278255360
4.1486764 0.060922794 -0.48823875 4278255360
4.147356 0.070922792 -0.49648151 4278255360
4.1460347 0.08092279 -0.50472426 4278255360
4.1447139 0.090922788 -0.51296705 4278255360
4.1433935 0.10092279 -0.52120978 4278255360
4.1420722 0.11092278 -0.52945256 4278255360
4.1407518 0.12092278 -0.53769529 4278255360
4.139431 0.13092278 -0.54593807 4278255360
4.1381102 0.14092278 -0.55418086 4278255360
4.1367893 0.15092279 -0.56242365 4278255360
4.1354685 0.1609228 -0.57066637 4278255360
4.1341481 0.1709228 -0.57890916 4278255360
4.1328268 0.18092281 -0.58715194 4278255360
4.131506 0.19092281 -0.59539473 4278255360
4.1301856 0.20092282 -0.60363746 4278255360
4.1288643 0.21092282 -0.61188024 4278255360
4.1277542 0.21933064 -0.61881059 4278255360
4.1297832 0.22933064 -0.60627234 4278255360
4.1318121 0.23933065 -0.59373403 4278255360
4.1338406 0.24933065 -0.58119577 4278255360
4.13587 0.25933066 -0.56865752 4278255360
4.1378989 0.26933065 -0.55611926 4278255360
4.1399279 0.27933064 -0.54358101 4278255360
4.1419563 0.28933063 -0.5310427 4278255360
4.1439857 0.29933062 -0.5185045 4278255360
4.1460147 0.30933061 -0.50596619 4278255360
4.1480432 0.3193306 -0.49342796 4278255360
4.1500721 0.32933059 -0.48088971 4278255360
4.1521015 0.33933058 -0.46835145 4278255360
4.1541305 0.34933057 -0.4558132 4278255360
4.1561589 0.35933056 -0.44327495 4278255360
4.1581879 0.36933056 -0.43073669 4278255360
4.1602168 0.37933055 -0.41819844 4278255360
4.1622462 0.38933054 -0.40566018 4278255360
4.1642747 0.39933053 -0.3931219 4278255360
4.1663036 0.40933052 -0.38058364 4278255360
4.1683326 0.41933051 -0.36804539 4278255360
4.170362 0.4293305 -0.35550714 4278255360
4.1723905 0.43933049 -0.34296888 4278255360
4.1744194 0.44933048 -0.33043063 4278255360
4.1764483 0.45933047 -0.31789237 4278255360
4.1784773 0.46933046 -0.30535412 4278255360
4.1805062 0.47933045 -0.29281586 4278255360
4.1825352 0.48933044 -0.28027761 4278255360
4.1845641 0.49933043 -0.26773936 4278255360
4.1865926 0.50933045 -0.25520104 4278255360
4.188622 0.51933044 -0.24266279 4278255360
4.1906509 0.52933043 -0.23012453 4278255360
4.1926799 0.53933042 -0.21758628 4278255360
4.1947083 0.54933041 -0.20504802 4278255360
4.1967373 0.5593304 -0.19250977 4278255360
4.1987667 0.56933039 -0.17997152 4278255360
4.2007957 0.57933038 -0.16743326 4278255360
4.2028241 0.58933038 -0.15489501 4278255360
4.2048531 0.59933037 -0.14235675 4278255360
4.2068825 0.60933036 -0.1298185 4278255360
4.2089114 0.61933035 -0.11728024 4278255360
4.2109399 0.62933034 -0.10474199 4278255360
4.2129688 0.63933033 -0.092203736 4278255360
4.2149978 0.64933032 -0.079665482 4278255360
4.2170272 0.65933031 -0.067127228 4278255360
4.2190557 0.6693303 -0.054588974 4278255360
4.2210846 0.67933029 -0.042050719 4278255360
4.2407894 -0.0014626608 0.083515957 4278255360
4.2405162 0.008537339 0.08177603 4278255360
4.2402439 0.018537339 0.080036111 4278255360
4.2399716 0.028537339 0.078296185 4278255360
4.2396989 0.038537338 0.076556258 4278255360
4.2394261 0.048537336 0.074816331 4278255360
4.2391534 0.058537334 0.073076405 4278255360
4.2388811 0.068537332 0.071336478 4278255360
4.2386084 0.07853733 0.069596559 4278255360
4.2383356 0.088537328 0.067856632 4278255360
4.2380633 0.098537326 0.066116706 4278255360
4.2377911 0.10853732 0.064376779 4278255360
4.2375178 0.11853732 0.062636852 4278255360
4.2372456 0.12853733 0.060896926 4278255360
4.2369728 0.13853733 0.059156999 4278255360
4.2367001 0.14853734 0.057417072 4278255360
4.2364278 0.15853734 0.055677146 4278255360
4.236155 0.16853735 0.053937219 4278255360
4.2358828 0.17853735 0.052197292 4278255360
4.23561 0.18853736 0.050457366 4278255360
4.2353373 0.19853736 0.048717439 4278255360
4.235065 0.20853737 0.046977513 4278255360
4.2347918 0.21853738 0.045237586 4278255360
4.2345195 0.22853738 0.043497659 4278255360
4.2342472 0.23853739 0.041757733 4278255360
4.2339745 0.24853739 0.040017806 4278255360
4.2337017 0.25853738 0.038277883 4278255360
4.233429 0.26853737 0.03653796 4278255360
4.2331567 0.27853736 0.034798034 4278255360
4.2328839 0.28853735 0.033058111 4278255360
4.2326112 0.29853734 0.031318188 4278255360
4.2323389 0.30853733 0.029578261 4278255360
4.2320666 0.31853732 0.027838338 4278255360
4.2317934 0.32853732 0.026098415 4278255360
4.2315211 0.33853731 0.024358489 4278255360
4.2312484 0.3485373 0.022618566 4278255360
4.2309756 0.35853729 0.020878643 4278255360
4.2307034 0.36853728 0.019138716 4278255360
4.2304306 0.37853727 0.017398797 4278255360
4.2301583 0.38853726 0.01565887 4278255360
4.2298856 0.39853725 0.013918944 4278255360
4.2296128 0.40853724 0.012179025 4278255360
4.2293406 0.41853723 0.010439098 4278255360
4.2290673 0.42853722 0.0086991712 4278255360
4.2287951 0.43853721 0.0069592521 4278255360
4.2285228 0.4485372 0.0052193254 4278255360
4.22825 0.45853719 0.0034793988 4278255360
4.2279773 0.46853718 0.0017394796 4278255360
4.2277045 0.47853717 -4.4703484e-07 4278255360
4.2274323 0.48853716 -0.0017403737 4278255360
4.2271595 0.49853715 -0.0034802929 4278255360
4.2268867 0.50853717 -0.0052202269 4278255360
4.2266145 0.51853716 -0.0069601461 4278255360
4.2263422 0.52853715 -0.0087000728 4278255360
4.226069 0.53853714 -0.010439999 4278255360
4.2257967 0.54853714 -0.012179919 4278255360
4.2255239 0.55853713 -0.013919845 4278255360
4.2252512 0.56853712 -0.015659772 4278255360
4.2249789 0.57853711 -0.017399691 4278255360
4.2247062 0.5885371 -0.019139618 4278255360
4.2244339 0.59853709 -0.020879544 4278255360
4.2241611 0.60853708 -0.022619464 4278255360
4.2238884 0.61853707 -0.02435939 4278255360
4.2236161 0.62853706 -0.026099317 4278255360
4.2233429 0.63853705 -0.027839236 4278255360
4.2230706 0.64853704 -0.029579163 4278255360
4.2227983 0.65853703 -0.031319089 4278255360
4.2225256 0.66853702 -0.033059008 4278255360
4.2222528 0.67853701 -0.034798935 4278255360
